ply
format ascii 1.0
element vertex 1251
property float x
property float y
property float z
property uchar red
property uchar green
property uchar blue
end_header
-3.05011 0.689165 -24.3145  255 255 255
14.1258 13.6855 -51.712  255 255 255
8.70973 -6.61134 -23.7748  255 255 255
13.4231 -5.59939 -24.346  255 255 255
-7.83471 -2.4007 -28.3573  255 255 255
8.96921 8.13146 -43.8849  255 255 255
9.14142 8.71367 -44.3322  255 255 255
-7.03329 -1.28637 -30.6149  255 255 255
-11.129 -2.46106 -29.5802  255 255 255
-9.67659 -4.24197 -26.8993  255 255 255
-4.88668 -7.54145 -21.6874  255 255 255
14.2938 -5.32057 -25.3487  255 255 255
19.1245 21.2473 -61.8775  255 255 255
-2.30157 8.19094 -43.1724  255 255 255
5.89583 -0.93131 -22.0475  255 255 255
13.5547 -4.87357 -23.4111  255 255 255
-4.03883 16.8773 -45.6183  255 255 255
11.2052 -5.49003 -24.5911  255 255 255
-1.25526 -5.80502 -22.5438  255 255 255
-16.4599 1.80015 -33.8841  255 255 255
11.4205 15.9476 -53.0434  255 255 255
-10.5357 11.0624 -45.0865  255 255 255
1.37323 7.2923 -43.2015  255 255 255
-15.0839 4.83728 -39.1129  255 255 255
13.2988 -4.61399 -25.412  255 255 255
-3.85294 -6.97913 -22.9759  255 255 255
5.82547 -0.126234 -22.9704  255 255 255
-14.0864 -7.29319 -22.4028  255 255 255
-5.56618 12.1069 -49.7797  255 255 255
7.53915 7.88721 -43.9156  255 255 255
9.91125 -6.68287 -23.8883  255 255 255
-8.86173 11.8296 -47.0297  255 255 255
-6.76127 -3.0377 -27.3356  255 255 255
-5.0754 3.97198 -39.0303  255 255 255
-11.0614 12.0564 -45.3  255 255 255
-9.30198 -4.84607 -26.276  255 255 255
-10.263 11.2182 -45.0965  255 255 255
13.0732 -3.99624 -25.645  255 255 255
-12.7446 2.50897 -36.8221  255 255 255
-11.5744 2.00004 -33.5584  255 255 255
-10.2684 10.2467 -45.1218  255 255 255
6.64224 7.0467 -42.6057  255 255 255
-0.506516 -2.09894 -22.1793  255 255 255
-0.8321 10.377 -47.0259  255 255 255
1.37749 9.366 -44.87  255 255 255
-4.17861 11.8902 -48.5901  255 255 255
-5.39891 -8.06615 -22.6946  255 255 255
-5.76065 -6.89078 -22.4054  255 255 255
10.0156 -7.00166 -23.5156  255 255 255
2.50547 16.3173 -54.1761  255 255 255
-13.189 -7.3979 -22.72  255 255 255
-6.13518 0.483813 -30.2901  255 255 255
9.36416 10.6782 -46.8733  255 255 255
-4.46511 12.0022 -49.8945  255 255 255
-14.4101 4.63495 -38.7034  255 255 255
-12.6029 -9.88594 -19.9128  255 255 255
13.0943 0.72881 -33.0847  255 255 255
6.40091 9.28347 -43.8439  255 255 255
13.77 -5.498 -25.7621  255 255 255
3.49489 2.05186 -21.3468  255 255 255
-13.4125 5.33464 -39.2139  255 255 255
-6.33864 6.88547 -42.3918  255 255 255
8.19338 -6.4941 -23.7837  255 255 255
-2.05905 -8.37896 -21.9791  255 255 255
13.3973 2.31444 -31.7176  255 255 255
9.9388 6.75177 -43.3755  255 255 255
12.7998 -5.4405 -24.8814  255 255 255
9.58794 7.96518 -43.9193  255 255 255
7.08575 12.6746 -48.8858  255 255 255
-6.34164 6.17577 -40.57  255 255 255
-2.21618 -8.1283 -22.0369  255 255 255
-3.67119 12.3498 -49.8379  255 255 255
-8.75813 -4.77558 -25.0658  255 255 255
8.98812 8.72695 -43.1455  255 255 255
7.45892 10.4338 -46.4098  255 255 255
-4.07611 -6.552 -23.594  255 255 255
-14.3755 -7.10698 -22.9354  255 255 255
-14.787 -7.27255 -23.3829  255 255 255
15.4838 21.9557 -58.1917  255 255 255
14.7051 -0.437298 -31.2308  255 255 255
7.52236 0.933029 -24.4026  255 255 255
10.95 -4.65549 -24.84  255 255 255
-3.9571 -7.37777 -23.4842  255 255 255
-4.37439 9.26432 -45.5592  255 255 255
9.35031 -6.17297 -24.2319  255 255 255
13.3471 11.2053 -49.434  255 255 255
-5.04257 12.7534 -48.5759  255 255 255
-15.9128 -4.72719 -25.6735  255 255 255
13.6292 5.35286 -39.333  255 255 255
14.5076 -1.1345 -29.5146  255 255 255
14.9806 15.4758 -54.2016  255 255 255
-4.74508 11.8984 -47.9502  255 255 255
-3.8586 -5.96911 -24.801  255 255 255
-8.79163 1.67704 -35.8278  255 255 255
7.67643 12.6396 -48.7338  255 255 255
-4.12127 -6.7891 -22.6794  255 255 255
7.95258 13.6083 -51.521  255 255 255
-5.12131 4.50767 -39.5954  255 255 255
-2.53552 7.5661 -43.2117  255 255 255
11.8314 23.9305 -52.8272  255 255 255
7.78997 7.65994 -44.2922  255 255 255
11.3537 20.5106 -55.1976  255 255 255
-5.43452 -6.91512 -22.4262  255 255 255
2.76487 -8.55608 -21.7524  255 255 255
-0.874188 -2.31229 -21.3041  255 255 255
-9.25568 3.53116 -36.9152  255 255 255
4.18854 16.5758 -53.8135  255 255 255
10.8724 -3.26626 -26.9219  255 255 255
16.4022 20.3247 -59.9061  255 255 255
3.5583 15.5812 -53.7029  255 255 255
-10.8065 10.248 -43.9906  255 255 255
12.1333 -6.53869 -24.1539  255 255 255
14.1013 7.85889 -40.0333  255 255 255
-7.93588 -3.68774 -27.5003  255 255 255
-4.48162 8.98234 -44.8681  255 255 255
13.0489 -5.3552 -24.4848  255 255 255
-7.82025 1.89854 -36.0654  255 255 255
2.10328 9.46607 -46.0955  255 255 255
4.55051 18.6327 -51.1576  255 255 255
-14.1959 10.3991 -44.5359  255 255 255
13.1696 8.90611 -39.2923  255 255 255
14.054 6.89904 -38.2961  255 255 255
12.0119 21.5226 -56.8881  255 255 255
-21.5173 7.3439 -44.3442  255 255 255
9.17426 11.3612 -48.9946  255 255 255
10.6269 -4.69286 -25.1471  255 255 255
-9.29524 6.74762 -42.0249  255 255 255
-13.3014 4.67251 -38.28  255 255 255
12.1879 -5.95108 -24.5198  255 255 255
7.26686 6.92663 -42.3879  255 255 255
8.80647 9.8793 -46.2545  255 255 255
-11.4082 10.5057 -43.3162  255 255 255
-16.3211 1.27968 -34.0916  255 255 255
14.7318 11.8121 -48.6425  255 255 255
11.9479 -4.04742 -27.034  255 255 255
-6.20171 7.22223 -43.5124  255 255 255
-9.8325 11.1991 -44.9289  255 255 255
9.53862 14.0018 -52.0352  255 255 255
16.3092 17.078 -54.8703  255 255 255
-8.40268 1.30084 -35.6068  255 255 255
5.75525 10.8746 -46.9714  255 255 255
8.89858 -7.07249 -24.2234  255 255 255
-2.74483 -7.3562 -20.9153  255 255 255
-3.52219 -7.71639 -21.0522  255 255 255
-6.78586 -7.95541 -21.7672  255 255 255
-14.085 11.4249 -39.8098  255 255 255
9.10481 -5.09312 -24.3982  255 255 255
-6.89665 -6.92471 -22.4956  255 255 255
-12.6675 -7.92888 -20.7068  255 255 255
-3.79437 8.91024 -45.4858  255 255 255
5.73329 -7.54426 -22.1119  255 255 255
9.17426 -6.05906 -24.6962  255 255 255
8.77392 -7.52092 -23.5524  255 255 255
-14.7683 3.67672 -39.3623  255 255 255
11.8463 6.66297 -29.6228  255 255 255
7.40877 9.21663 -45.6528  255 255 255
2.25092 17.9602 -49.746  255 255 255
-8.34808 1.01833 -34.5096  255 255 255
4.51959 18.3962 -52.2888  255 255 255
-13.6163 -7.8658 -21.3341  255 255 255
13.1794 16.1413 -55.1703  255 255 255
-1.82762 9.16249 -45.2132  255 255 255
9.11105 -5.75114 -23.9997  255 255 255
11.4405 -1.58935 -29.5719  255 255 255
10.5589 11.2923 -47.8497  255 255 255
7.34441 8.12099 -43.5583  255 255 255
15.7595 13.8623 -51.4141  255 255 255
-4.24619 -6.86317 -22.0199  255 255 255
-5.89046 -6.46213 -23.7912  255 255 255
7.4168 0.130768 -23.4682  255 255 255
7.11858 10.8898 -47.5237  255 255 255
13.9491 7.09895 -40.551  255 255 255
-2.20702 4.50487 -29.8757  255 255 255
12.975 -4.47516 -25.285  255 255 255
17.544 20.1848 -59.5774  255 255 255
-1.78639 9.54678 -45.1225  255 255 255
-8.79865 2.70234 -36.8885  255 255 255
-12.4025 8.88533 -45.6415  255 255 255
0.155834 3.40121 -21.5137  255 255 255
7.60257 8.0213 -43.7576  255 255 255
9.00671 -4.16644 -26.4406  255 255 255
5.29004 20.0071 -51.7644  255 255 255
10.9462 23.1262 -53.9846  255 255 255
13.8797 8.64421 -41.2247  255 255 255
13.5052 7.76477 -40.1928  255 255 255
-1.29955 9.44408 -45.0901  255 255 255
10.0453 -4.94869 -25.1741  255 255 255
-6.90482 -3.80458 -27.3183  255 255 255
-6.31637 -5.84546 -24.5949  255 255 255
-23.1647 1.31419 -34.0864  255 255 255
13.4589 -6.15714 -25.3594  255 255 255
13.4369 5.82784 -39.5979  255 255 255
8.22256 -7.00009 -23.387  255 255 255
-16.3128 2.13225 -35.6697  255 255 255
8.80219 -6.46674 -22.859  255 255 255
8.99807 20.7511 -53.363  255 255 255
-14.3234 -6.52686 -23.2032  255 255 255
-4.36969 8.48009 -43.9395  255 255 255
2.76397 -6.1242 -21.9621  255 255 255
-5.31265 -4.89393 -25.3516  255 255 255
13.3647 14.1321 -52.5275  255 255 255
11.8398 -0.301235 -33.015  255 255 255
9.58013 -6.39764 -23.7247  255 255 255
0.999595 -2.92948 -20.2884  255 255 255
-13.2446 -7.10829 -22.0607  255 255 255
-21.3036 1.04172 -34.9019  255 255 255
-7.86923 6.96814 -41.5906  255 255 255
-11.8508 -8.78481 -20.7688  255 255 255
-6.6895 -4.29799 -27.5996  255 255 255
-6.62557 -2.45745 -30.4937  255 255 255
4.729 -6.28336 -23.8511  255 255 255
-4.63089 6.4166 -40.865  255 255 255
9.59357 -4.3622 -26.2646  255 255 255
-5.47463 4.0364 -38.8508  255 255 255
2.96643 -7.53881 -20.5504  255 255 255
-15.7973 9.45675 -45.0647  255 255 255
12.9121 7.39372 -42.1831  255 255 255
14.8156 17.2503 -55.0841  255 255 255
5.09355 7.82319 -43.7366  255 255 255
-12.4012 -7.96645 -21.0682  255 255 255
2.58202 15.2463 -53.8152  255 255 255
5.88332 9.09625 -45.6966  255 255 255
-13.5878 -8.14039 -22.1917  255 255 255
14.269 7.67655 -37.8809  255 255 255
1.77773 9.20777 -44.8415  255 255 255
16.8072 17.355 -56.4411  255 255 255
-4.80916 -9.05195 -21.3578  255 255 255
13.4077 -5.85183 -24.2461  255 255 255
-15.1135 10.546 -43.6826  255 255 255
6.73457 -8.12631 -22.054  255 255 255
6.86554 -0.25949 -22.3053  255 255 255
12.3121 -1.42623 -30.2933  255 255 255
-4.91787 -7.17302 -22.2095  255 255 255
-3.89444 -8.46131 -21.9751  255 255 255
-1.63548 -7.3727 -22.8994  255 255 255
13.6483 -5.02101 -25.6319  255 255 255
3.24213 -8.19474 -21.878  255 255 255
11.6749 -5.96837 -23.3775  255 255 255
9.62428 -6.64918 -22.5864  255 255 255
-3.38382 -7.22278 -21.9307  255 255 255
-2.87804 -8.32964 -21.3496  255 255 255
3.22522 15.2714 -52.5076  255 255 255
2.61531 13.5894 -52.2258  255 255 255
13.2445 -6.96195 -22.9046  255 255 255
10.0427 -3.79307 -25.7258  255 255 255
-5.13058 -7.203 -22.6693  255 255 255
-5.01197 4.40569 -38.6591  255 255 255
3.45423 -9.32818 -21.501  255 255 255
13.4855 23.5595 -55.1036  255 255 255
9.92484 -5.66047 -24.1272  255 255 255
1.55141 -7.90238 -21.8491  255 255 255
-5.74105 -6.55615 -24.0874  255 255 255
9.84297 -5.31469 -24.6081  255 255 255
8.68764 -6.7367 -23.9725  255 255 255
-3.34026 7.72431 -42.5439  255 255 255
9.06325 -6.75484 -25.5992  255 255 255
21.7175 27.0173 -58.7184  255 255 255
-13.1521 15.5538 -34.6514  255 255 255
-14.4471 15.9799 -33.097  255 255 255
-3.34065 19.5379 -41.8353  255 255 255
16.4994 25.2533 -57.4306  255 255 255
22.9828 31.2717 -69.2715  255 255 255
-10.1097 16.2747 -37.8487  255 255 255
14.3727 27.1909 -59.8875  255 255 255
-3.91365 19.0516 -42.8543  255 255 255
-16.3138 14.9625 -33.8198  255 255 255
20.7716 27.7115 -59.4813  255 255 255
-14.9387 16.2422 -35.5093  255 255 255
-13.6867 17.404 -35.2956  255 255 255
-5.37923 18.1987 -41.7253  255 255 255
18.0538 25.8226 -55.7042  255 255 255
-2.99399 19.874 -42.4588  255 255 255
-2.95873 19.0512 -42.7443  255 255 255
13.3793 13.995 -31.3059  255 255 255
13.8869 14.9088 -31.1163  255 255 255
-6.30245 17.3272 -40.2709  255 255 255
-5.27378 19.3349 -42.2883  255 255 255
-13.6158 15.8222 -33.7368  255 255 255
-8.92683 18.3537 -38.4596  255 255 255
-9.23954 18.3701 -38.0175  255 255 255
-8.09514 18.1694 -37.775  255 255 255
15.3503 26.6221 -58.4446  255 255 255
18.0933 26.1168 -57.0269  255 255 255
12.7536 14.5344 -31.4104  255 255 255
5.11809 22.1842 -50.1452  255 255 255
12.5974 26.4937 -57.6035  255 255 255
14.8984 24.1127 -54.7461  255 255 255
7.1737 22.6374 -50.3769  255 255 255
-12.4537 16.3823 -35.1512  255 255 255
16.9207 28.8121 -63.7211  255 255 255
14.2043 15.0136 -33.2488  255 255 255
21.9875 31.1471 -70.7897  255 255 255
13.8688 14.8495 -33.4303  255 255 255
13.8464 15.6783 -33.2808  255 255 255
-10.5726 17.7788 -37.6512  255 255 255
14.4172 15.7194 -31.4679  255 255 255
-11.1073 17.1817 -37.2465  255 255 255
-3.18594 18.6689 -43.4193  255 255 255
-12.6463 16.2198 -36.061  255 255 255
-13.0213 15.4383 -34.9346  255 255 255
-9.64481 18.0113 -37.6551  255 255 255
1.16521 21.5281 -45.4562  255 255 255
12.2918 14.8074 -33.4426  255 255 255
-13.0453 16.3292 -35.665  255 255 255
-10.5384 16.8135 -37.8935  255 255 255
-10.386 17.0815 -38.1352  255 255 255
-9.93286 17.4755 -38.8128  255 255 255
13.8389 14.6682 -29.7785  255 255 255
19.2022 27.1702 -58.7429  255 255 255
-13.5975 15.399 -35.1853  255 255 255
25.5948 33.533 -74.3795  255 255 255
-5.05214 19.2353 -41.8662  255 255 255
2.2682 20.9112 -48.4261  255 255 255
12.8024 24.1574 -53.1197  255 255 255
11.869 23.0383 -53.2232  255 255 255
21.6057 30.6565 -68.3166  255 255 255
-13.1145 16.5661 -35.9679  255 255 255
13.9781 14.0831 -31.7386  255 255 255
3.81951 20.6854 -47.2663  255 255 255
9.50966 23.4259 -54.3007  255 255 255
-12.5658 16.0418 -36.7578  255 255 255
14.4449 15.7419 -32.3888  255 255 255
13.4819 14.2544 -32.1265  255 255 255
5.42139 21.6185 -50.8506  255 255 255
-11.8498 15.9855 -36.9161  255 255 255
-10.626 17.9951 -37.6922  255 255 255
-11.0439 17.3272 -37.3449  255 255 255
-9.03035 17.6962 -39.9346  255 255 255
-6.66808 17.6828 -39.9329  255 255 255
12.1375 23.9466 -53.404  255 255 255
13.8847 13.4649 -29.8702  255 255 255
-11.0402 16.869 -37.8482  255 255 255
-11.3122 16.8482 -38.2054  255 255 255
2.61152 20.27 -46.4661  255 255 255
25.6094 32.1329 -72.7974  255 255 255
-8.89286 16.6957 -38.866  255 255 255
5.50595 20.8395 -49.6479  255 255 255
-5.59258 18.5319 -42.0035  255 255 255
1.63883 20.8355 -46.2524  255 255 255
-14.8223 16.2432 -36.5821  255 255 255
20.1403 27.6245 -62.692  255 255 255
13.7744 13.4068 -30.5843  255 255 255
-9.74463 16.2585 -37.7482  255 255 255
-8.56167 16.9486 -40.0031  255 255 255
15.6741 27.9769 -63.2635  255 255 255
-14.8598 15.656 -35.0123  255 255 255
-8.65211 16.8065 -38.8803  255 255 255
13.6228 14.9773 -32.5448  255 255 255
-15.1071 15.6054 -34.6905  255 255 255
-8.53937 16.6999 -39.0426  255 255 255
-12.5591 16.1519 -35.6672  255 255 255
13.3189 13.8644 -32.5689  255 255 255
-8.6926 17.5414 -38.2946  255 255 255
-10.312 17.8504 -39.979  255 255 255
13.2995 14.0595 -30.423  255 255 255
-12.5298 15.5753 -36.5353  255 255 255
-12.0489 15.3159 -36.1207  255 255 255
12.0428 23.9068 -53.317  255 255 255
-6.00528 17.0374 -40.1957  255 255 255
-6.95898 17.1585 -39.1764  255 255 255
13.0396 12.884 -31.2381  255 255 255
18.4977 26.4219 -60.5378  255 255 255
15.0543 26.1346 -61.8705  255 255 255
13.6605 23.5306 -56.1724  255 255 255
-10.2801 16.4307 -40.3991  255 255 255
17.0739 27.4649 -63.5373  255 255 255
-18.7038 16.9717 -37.5442  255 255 255
-17.2761 15.2541 -34.6207  255 255 255
-15.9271 15.3299 -35.1302  255 255 255
-12.8262 15.7934 -36.3984  255 255 255
14.13 26.5751 -61.1954  255 255 255
24.978 30.8089 -73.3299  255 255 255
13.399 13.1955 -29.8632  255 255 255
-11.6137 16.5388 -38.2379  255 255 255
-7.00181 17.1543 -40.6767  255 255 255
-8.79371 16.0026 -39.6331  255 255 255
10.0234 23.2063 -56.1325  255 255 255
-4.6362 17.5911 -42.4039  255 255 255
13.9648 13.5975 -29.7324  255 255 255
-9.68557 16.6716 -38.5544  255 255 255
0.244436 18.6516 -47.3908  255 255 255
14.1349 14.5554 -32.9716  255 255 255
-14.2652 15.9178 -36.1073  255 255 255
-10.1607 16.2091 -37.8357  255 255 255
-12.7111 16.409 -37.0117  255 255 255
17.2448 24.4317 -57.6636  255 255 255
8.8695 22.8281 -54.6302  255 255 255
13.1213 10.9404 -25.8602  255 255 255
-8.84642 15.6195 -39.5207  255 255 255
-6.27567 17.5667 -41.5094  255 255 255
-17.5175 15.1075 -35.2588  255 255 255
-15.0775 15.5785 -35.3738  255 255 255
-15.1672 14.7047 -34.2355  255 255 255
-4.83542 17.9474 -43.2609  255 255 255
-3.86998 18.5965 -43.4887  255 255 255
18.8584 28.6167 -68.0603  255 255 255
5.90114 21.32 -50.7017  255 255 255
7.20404 20.2617 -51.3461  255 255 255
-5.43172 18.4651 -41.7118  255 255 255
6.74227 22.566 -54.8105  255 255 255
-26.1081 21.3261 -50.7764  255 255 255
-0.308451 19.558 -45.7478  255 255 255
18.0697 24.8191 -63.0156  255 255 255
-9.22989 16.5603 -40.3018  255 255 255
-9.69916 17.3216 -39.5923  255 255 255
-6.65475 17.1322 -40.8334  255 255 255
21.2034 26.1674 -64.1449  255 255 255
-9.90557 16.4552 -38.6059  255 255 255
-2.43655 18.904 -44.6198  255 255 255
-3.29162 18.7339 -44.4141  255 255 255
-4.01384 18.5696 -44.3479  255 255 255
-15.8754 15.2043 -35.8275  255 255 255
14.2688 14.5143 -30.1583  255 255 255
13.7624 13.609 -30.3253  255 255 255
13.039 10.3865 -23.7709  255 255 255
-13.4409 16.1325 -37.6015  255 255 255
-7.8106 16.9166 -42.474  255 255 255
3.13042 21.8851 -48.9631  255 255 255
18.8578 25.1814 -63.0632  255 255 255
-16.0432 16.0711 -37.9406  255 255 255
14.0625 12.5314 -30.3102  255 255 255
-7.14024 16.6907 -40.6361  255 255 255
14.6773 13.3336 -31.1791  255 255 255
12.5424 12.362 -24.8352  255 255 255
-9.31374 16.3324 -39.2346  255 255 255
-9.93079 15.5444 -38.8144  255 255 255
0.659964 19.7409 -48.021  255 255 255
12.3042 10.3516 -25.5857  255 255 255
-0.0730232 19.2323 -48.8312  255 255 255
-13.9098 14.489 -35.6181  255 255 255
-11.239 15.8937 -37.4455  255 255 255
-9.49548 16.3253 -39.1531  255 255 255
0.222751 18.6604 -46.7258  255 255 255
0.0404747 18.436 -47.056  255 255 255
2.17365 19.4242 -49.0066  255 255 255
1.37302 19.6894 -49.3107  255 255 255
2.22544 19.6308 -47.9347  255 255 255
-5.01169 17.7765 -43.1345  255 255 255
-4.88394 16.9823 -43.0671  255 255 255
-14.827 14.8939 -34.8783  255 255 255
0.296681 19.849 -48.8871  255 255 255
1.56715 19.1985 -48.3816  255 255 255
-9.65648 15.398 -39.1704  255 255 255
2.38006 19.6447 -47.6066  255 255 255
12.6401 10.4383 -26.6524  255 255 255
-2.98704 18.345 -44.2927  255 255 255
-10.2763 15.6413 -39.6521  255 255 255
1.47304 18.552 -47.9153  255 255 255
3.78418 19.455 -48.3677  255 255 255
14.445 12.0546 -31.912  255 255 255
13.0635 14.3365 -32.076  255 255 255
2.42324 19.636 -48.5713  255 255 255
4.37908 20.6532 -50.2388  255 255 255
28.6368 30.9663 -78.4103  255 255 255
-11.3102 15.0518 -38.0778  255 255 255
1.8693 20.1169 -50.9431  255 255 255
13.2192 10.6679 -26.476  255 255 255
-5.98075 17.0222 -42.6726  255 255 255
3.83536 19.7036 -50.0518  255 255 255
-1.96177 19.7251 -49.2363  255 255 255
14.0625 14.0097 -32.7724  255 255 255
0.433452 19.3858 -48.9255  255 255 255
-27.4014 21.8134 -53.4224  255 255 255
-2.72002 17.2735 -44.4307  255 255 255
-1.48092 18.971 -47.1477  255 255 255
-2.71141 18.4259 -47.7151  255 255 255
-0.693101 18.8872 -47.6255  255 255 255
2.46245 19.5417 -49.8738  255 255 255
11.9438 10.527 -24.6136  255 255 255
13.3681 10.9485 -25.5306  255 255 255
13.0836 13.4927 -34.3613  255 255 255
14.3468 10.4086 -23.92  255 255 255
-2.19503 18.4795 -45.5053  255 255 255
2.65023 20.2565 -50.834  255 255 255
15.5463 13.165 -31.4035  255 255 255
15.061 13.2081 -31.3874  255 255 255
-27.7167 20.9693 -52.3599  255 255 255
-5.93328 16.0473 -41.8456  255 255 255
-9.42283 15.5038 -40.9114  255 255 255
-10.3515 15.1568 -39.1402  255 255 255
-6.37305 15.8117 -42.5873  255 255 255
-6.67191 16.9515 -43.6627  255 255 255
13.6307 10.0723 -24.1609  255 255 255
-10.6874 15.8311 -39.0652  255 255 255
-10.4851 15.0632 -39.6573  255 255 255
-4.40598 17.9429 -45.2844  255 255 255
-11.1114 15.0938 -39.9179  255 255 255
11.7185 10.4437 -25.1151  255 255 255
12.6781 10.4864 -25.6742  255 255 255
-14.4383 13.092 -35.4667  255 255 255
-14.6487 13.0843 -35.0051  255 255 255
-9.26694 16.7212 -40.1061  255 255 255
14.4915 9.734 -24.0732  255 255 255
11.9506 11.1559 -24.858  255 255 255
-2.06361 17.642 -45.536  255 255 255
-1.47221 17.431 -46.8166  255 255 255
14.4342 12.6651 -32.7525  255 255 255
13.1633 10.8859 -24.8116  255 255 255
13.4338 13.2208 -36.7432  255 255 255
-4.58156 15.84 -43.3949  255 255 255
15.0464 22.9657 -60.6066  255 255 255
-11.1354 14.8533 -37.3191  255 255 255
-11.7565 14.4026 -38.3525  255 255 255
-1.17945 17.8429 -46.9529  255 255 255
12.7194 10.6935 -25.3928  255 255 255
12.9886 11.1825 -25.0645  255 255 255
12.5539 9.84384 -25.9516  255 255 255
-1.79492 17.2527 -46.223  255 255 255
-2.04556 17.9994 -46.8239  255 255 255
13.2505 11.2692 -24.3551  255 255 255
-3.34999 16.9806 -45.5742  255 255 255
-2.80547 16.6183 -46.5547  255 255 255
-2.66853 17.0314 -45.2635  255 255 255
-0.675916 18.6415 -46.8419  255 255 255
-12.2899 13.746 -38.8367  255 255 255
13.2426 13.1283 -34.216  255 255 255
14.6808 14.073 -35.7279  255 255 255
0.74661 19.0578 -48.4399  255 255 255
-17.7137 14.9731 -38.269  255 255 255
-18.538 14.4888 -38.6222  255 255 255
-2.95825 18.3569 -47.9808  255 255 255
12.6754 10.4407 -24.9973  255 255 255
16.531 22.0561 -59.5791  255 255 255
-1.45599 17.7905 -46.6208  255 255 255
-3.07885 16.8297 -45.547  255 255 255
-0.562393 17.1776 -47.9988  255 255 255
13.4319 11.3951 -25.2409  255 255 255
-15.3014 15.5615 -38.1185  255 255 255
-2.80425 17.4502 -46.4437  255 255 255
15.0116 22.1802 -59.5218  255 255 255
13.853 8.61118 -22.6278  255 255 255
5.56636 20.3896 -52.7554  255 255 255
-3.31394 16.7735 -45.15  255 255 255
16.56 24.8848 -66.6504  255 255 255
-16.0733 15.1501 -40.2111  255 255 255
-10.5536 15.1611 -39.1767  255 255 255
-3.77185 18.0609 -46.1044  255 255 255
-12.2577 13.6736 -38.7419  255 255 255
5.5288 18.9226 -52.2494  255 255 255
14.079 9.75001 -25.9317  255 255 255
13.6308 9.88251 -23.8048  255 255 255
-15.0902 14.1569 -37.9181  255 255 255
-1.29843 19.0329 -49.8819  255 255 255
-1.91635 17.9384 -49.02  255 255 255
-9.31623 15.0045 -41.5458  255 255 255
14.694 22.584 -59.6977  255 255 255
-8.29257 15.7418 -41.6335  255 255 255
13.4931 10.0068 -25.241  255 255 255
-11.4762 13.7657 -39.3023  255 255 255
-10.1986 14.2113 -40.85  255 255 255
-10.8875 15.1023 -39.0744  255 255 255
-15.7833 14.1715 -40.9197  255 255 255
16.775 24.7219 -66.5303  255 255 255
13.1456 9.74465 -25.1923  255 255 255
-4.39831 15.3364 -45.043  255 255 255
12.218 9.47458 -23.9338  255 255 255
-8.0459 15.9997 -41.416  255 255 255
13.6221 13.2541 -33.9937  255 255 255
-12.1218 13.5717 -38.2231  255 255 255
-12.5535 14.1903 -38.5625  255 255 255
-7.8055 16.1151 -42.6248  255 255 255
-8.31209 15.2835 -42.584  255 255 255
13.2056 9.06195 -24.7802  255 255 255
13.9237 9.27617 -23.6484  255 255 255
8.29142 19.4647 -54.8592  255 255 255
17.6602 24.2887 -68.3617  255 255 255
-12.9487 13.809 -39.7234  255 255 255
-1.05953 18.2431 -49.3248  255 255 255
13.2684 10.8945 -26.4157  255 255 255
14.0167 7.79001 -22.3021  255 255 255
18.5617 25.3793 -70.2549  255 255 255
13.6091 10.2605 -24.4543  255 255 255
8.4311 20.9349 -57.5796  255 255 255
12.4849 10.18 -27.8164  255 255 255
-15.9812 14.0364 -37.165  255 255 255
-10.2891 14.9181 -40.4389  255 255 255
-9.52847 15.3363 -40.3784  255 255 255
-9.02442 15.3213 -41.9814  255 255 255
13.003 9.96796 -26.2141  255 255 255
-2.99043 16.1348 -45.8881  255 255 255
12.6415 10.0998 -26.6215  255 255 255
12.0941 9.47523 -25.3577  255 255 255
-12.1469 13.9518 -37.5589  255 255 255
13.2889 13.2095 -34.6315  255 255 255
13.1635 9.4497 -25.4238  255 255 255
-12.3538 13.8843 -40.3294  255 255 255
13.0285 11.9776 -33.2373  255 255 255
2.31616 18.6406 -52.252  255 255 255
12.6666 13.1782 -34.2342  255 255 255
-9.42204 14.5326 -42.2434  255 255 255
-7.49343 14.8025 -42.2711  255 255 255
-7.91255 15.4105 -41.7278  255 255 255
-8.91271 14.1997 -41.8283  255 255 255
8.99788 20.1565 -59.1241  255 255 255
-5.80167 14.784 -44.1529  255 255 255
-2.22403 16.263 -47.2038  255 255 255
-6.0588 14.8792 -43.0942  255 255 255
-8.80039 14.6953 -41.2489  255 255 255
10.7344 19.8237 -56.6469  255 255 255
12.7785 8.4786 -24.2022  255 255 255
13.9137 9.52728 -24.0257  255 255 255
-14.758 12.2957 -38.658  255 255 255
-4.93403 15.5762 -45.9914  255 255 255
-11.3442 13.3565 -38.7421  255 255 255
16.3911 23.4948 -68.8749  255 255 255
-7.4333 15.0578 -44.4824  255 255 255
-12.0071 14.7248 -39.7894  255 255 255
13.7696 11.6447 -34.0414  255 255 255
-5.39199 16.3184 -46.4819  255 255 255
12.8274 12.2747 -34.0185  255 255 255
-16.6445 14.2473 -38.8319  255 255 255
13.0015 12.1107 -34.7619  255 255 255
5.30826 18.063 -55.4563  255 255 255
12.727 9.74565 -27.4641  255 255 255
12.8581 10.1179 -27.3577  255 255 255
-5.85217 14.5348 -44.2864  255 255 255
-10.1492 13.3394 -38.8344  255 255 255
-10.5062 12.5793 -39.6565  255 255 255
-21.2909 14.6732 -44.9869  255 255 255
-7.19312 14.7926 -44.0793  255 255 255
-7.53927 14.7376 -45.4081  255 255 255
0.898928 16.4565 -50.0506  255 255 255
-11.2883 14.1477 -41.1254  255 255 255
-7.42169 14.4719 -42.6862  255 255 255
-9.26427 15.351 -42.0257  255 255 255
-10.6919 15.234 -43.8105  255 255 255
-10.8134 13.4602 -40.8112  255 255 255
-11.3124 13.7296 -41.1006  255 255 255
-11.2172 13.1363 -40.3884  255 255 255
-8.5018 14.7305 -44.1477  255 255 255
9.10851 19.4128 -59.8175  255 255 255
13.4814 12.2962 -37.1116  255 255 255
14.9418 8.91671 -24.2228  255 255 255
-13.3974 13.8678 -39.9016  255 255 255
4.49115 17.0874 -53.5482  255 255 255
-13.5449 13.4439 -40.562  255 255 255
-9.23287 12.9975 -41.1201  255 255 255
14.3077 9.13186 -24.6198  255 255 255
12.2091 11.9279 -35.0744  255 255 255
-8.32135 14.9966 -43.4011  255 255 255
13.4672 8.579 -23.4417  255 255 255
13.646 8.23933 -24.565  255 255 255
-8.5221 14.5622 -42.1378  255 255 255
12.6412 8.69325 -23.945  255 255 255
13.5036 7.96543 -23.9496  255 255 255
-13.2458 13.1313 -39.4409  255 255 255
-7.51646 14.8594 -46.7861  255 255 255
-10.7388 13.9339 -42.6302  255 255 255
-9.81701 13.216 -43.3365  255 255 255
-13.1577 12.8051 -38.7092  255 255 255
-10.497 14.2386 -42.4606  255 255 255
13.0115 8.76248 -24.9942  255 255 255
14.6404 8.40244 -25.9555  255 255 255
12.5823 7.79263 -24.4877  255 255 255
16.3527 13.6655 -40.4366  255 255 255
-12.121 13.0592 -39.6473  255 255 255
12.4348 9.86882 -25.7018  255 255 255
12.0732 9.06375 -26.2253  255 255 255
12.3011 9.09427 -26.2411  255 255 255
-8.91074 13.3724 -43.1322  255 255 255
-10.7718 13.2835 -40.2474  255 255 255
12.7361 7.97956 -24.3575  255 255 255
-8.50494 13.4572 -42.1439  255 255 255
-9.60776 14.0817 -41.6686  255 255 255
1.34564 15.5659 -52.4212  255 255 255
16.1832 12.7466 -41.1274  255 255 255
-8.80804 13.7515 -44.7938  255 255 255
-7.43986 14.2948 -45.2298  255 255 255
-6.91399 13.9771 -44.7766  255 255 255
-18.9776 13.017 -42.8827  255 255 255
-11.7677 12.2562 -42.9597  255 255 255
-11.0257 13.4853 -41.4117  255 255 255
-9.60873 13.7203 -42.9465  255 255 255
-10.3198 14.501 -42.5736  255 255 255
-15.943 12.3874 -39.9426  255 255 255
11.648 9.08029 -26.1409  255 255 255
-9.80789 13.6924 -42.5555  255 255 255
-9.85432 14.2508 -41.4032  255 255 255
-10.8287 12.9814 -42.3589  255 255 255
-9.15192 13.4782 -43.2966  255 255 255
-8.18509 13.0255 -43.7458  255 255 255
-7.5042 13.0201 -43.1043  255 255 255
12.4712 8.48788 -27.7419  255 255 255
-14.9958 12.0502 -38.6945  255 255 255
-14.2453 12.1139 -39.9441  255 255 255
-10.331 12.8209 -42.1013  255 255 255
-9.90988 13.2121 -43.1378  255 255 255
-13.1914 12.4658 -40.2147  255 255 255
-13.1909 12.6438 -39.785  255 255 255
-13.4752 12.567 -40.8962  255 255 255
17.5256 12.5261 -40.0642  255 255 255
-8.0881 13.9666 -44.267  255 255 255
-8.03701 13.635 -44.5568  255 255 255
1.57386 15.5019 -51.4385  255 255 255
0.58181 15.5526 -51.2456  255 255 255
14.2678 9.27959 -26.5756  255 255 255
-10.207 12.9424 -43.0455  255 255 255
-10.3731 13.0509 -42.2414  255 255 255
-5.51341 15.0362 -47.437  255 255 255
-14.4494 12.4173 -39.6744  255 255 255
-10.7856 13.6254 -43.8991  255 255 255
-10.9563 13.3054 -42.2601  255 255 255
13.1645 9.18835 -27.4627  255 255 255
-8.62631 14.0233 -45.1174  255 255 255
-14.8259 12.9534 -39.8249  255 255 255
14.236 11.0301 -34.1074  255 255 255
-6.56716 12.9243 -45.2359  255 255 255
-6.33177 14.4344 -46.4715  255 255 255
1.12939 16.4766 -52.1502  255 255 255
0.638275 16.2978 -53.1119  255 255 255
-9.33078 13.1749 -43.2265  255 255 255
-11.1804 13.1438 -42.0177  255 255 255
14.178 8.44548 -26.6228  255 255 255
11.8609 6.87544 -24.5606  255 255 255
-9.05731 12.8456 -43.4454  255 255 255
0.656363 15.9478 -51.5254  255 255 255
13.3262 10.3682 -33.3536  255 255 255
12.4768 8.61999 -27.0822  255 255 255
13.2808 8.62725 -24.7963  255 255 255
13.9958 9.40357 -32.6534  255 255 255
-15.9078 13.2484 -42.7943  255 255 255
-16.5983 11.4563 -37.9046  255 255 255
-7.55036 13.4173 -45.5991  255 255 255
13.0902 7.96892 -25.1995  255 255 255
-7.29705 14.043 -46.2377  255 255 255
13.107 8.7724 -25.1043  255 255 255
13.169 7.33848 -25.1171  255 255 255
-12.1379 12.8276 -41.1022  255 255 255
-11.1043 12.443 -42.6604  255 255 255
13.9747 9.85609 -32.744  255 255 255
12.706 7.59045 -26.1854  255 255 255
-6.54191 13.8226 -45.4599  255 255 255
-0.414192 16.0838 -52.0801  255 255 255
14.7768 7.39213 -24.262  255 255 255
-17.5156 12.0544 -39.9326  255 255 255
13.4971 9.50816 -32.881  255 255 255
11.7589 7.48421 -25.5056  255 255 255
12.3654 8.30247 -27.194  255 255 255
12.1162 8.00788 -28.2861  255 255 255
13.0111 7.59788 -25.913  255 255 255
-10.2121 12.8034 -43.5143  255 255 255
-12.3338 12.4422 -40.9115  255 255 255
14.4388 7.14179 -23.0357  255 255 255
-12.9354 11.8499 -42.5388  255 255 255
13.6425 10.8885 -32.4641  255 255 255
13.4921 11.5769 -39.2018  255 255 255
12.7014 8.618 -25.1813  255 255 255
-9.34877 11.9207 -44.3113  255 255 255
-9.99771 11.871 -44.6545  255 255 255
0.496567 14.9989 -52.7465  255 255 255
-11.3079 11.7973 -41.7505  255 255 255
13.0262 9.40213 -33.422  255 255 255
-12.7833 12.5765 -41.7113  255 255 255
-5.22588 14.1103 -47.9152  255 255 255
-11.9239 12.7027 -41.3414  255 255 255
-10.2721 12.763 -43.0466  255 255 255
-7.09826 13.5055 -47.5223  255 255 255
-7.64868 13.3755 -48.096  255 255 255
13.0755 7.57384 -27.0101  255 255 255
12.424 8.31851 -27.7234  255 255 255
11.7872 8.4204 -26.589  255 255 255
12.121 8.43658 -27.638  255 255 255
-10.9176 12.5904 -41.963  255 255 255
-9.53982 12.2235 -44.2323  255 255 255
-6.90616 14.0864 -47.1483  255 255 255
-3.55198 13.7754 -50.2888  255 255 255
13.0788 8.79369 -28.0383  255 255 255
-4.10167 14.2988 -49.0645  255 255 255
13.4043 9.78218 -34.6821  255 255 255
-16.7647 10.9046 -40.2071  255 255 255
13.3534 7.00097 -26.6483  255 255 255
13.5864 7.59987 -25.7761  255 255 255
-16.7323 11.7666 -40.6676  255 255 255
11.9758 8.45909 -26.4152  255 255 255
12.6067 7.87025 -26.9337  255 255 255
6.75359 14.0961 -50.0251  255 255 255
-15.5747 11.4796 -40.0437  255 255 255
-5.03086 13.9919 -49.1763  255 255 255
9.8271 14.9671 -52.86  255 255 255
12.8138 6.99674 -26.7634  255 255 255
14.1899 7.7405 -24.2417  255 255 255
8.46271 15.5857 -57.629  255 255 255
-5.43859 11.9498 -47.9202  255 255 255
-37.6396 15.8406 -55.9746  255 255 255
12.36 7.13655 -27.1293  255 255 255
14.3343 9.22333 -32.7985  255 255 255
15.5057 9.43735 -32.9763  255 255 255
12.9057 7.13458 -27.1267  255 255 255
-16.5392 11.499 -38.9597  255 255 255
11.8537 9.94156 -40.1867  255 255 255
12.6653 7.97495 -26.6697  255 255 255
17.2272 9.20752 -31.8876  255 255 255
-6.37006 13.0066 -49.3493  255 255 255
12.068 8.24084 -27.3548  255 255 255
-14.3413 11.273 -41.3619  255 255 255
-10.331 11.4895 -44.5195  255 255 255
13.4904 7.4024 -26.1773  255 255 255
13.2838 7.51172 -25.1136  255 255 255
-11.9298 11.4253 -40.2108  255 255 255
-16.44 11.7898 -40.0524  255 255 255
-13.6239 9.58499 -35.7302  255 255 255
-12.5137 11.1954 -43.0688  255 255 255
-9.24763 11.6053 -45.004  255 255 255
-9.42612 11.8625 -43.8606  255 255 255
-9.60276 11.0969 -44.1302  255 255 255
-11.3285 10.9214 -40.6263  255 255 255
-15.5819 10.8371 -41.1046  255 255 255
-11.7692 11.3971 -43.9686  255 255 255
13.4075 6.82211 -25.0897  255 255 255
16.9566 7.71 -28.8417  255 255 255
-14.6462 10.4463 -41.0768  255 255 255
-14.1887 10.9853 -41.5736  255 255 255
7.00899 12.9327 -49.783  255 255 255
12.4434 8.25559 -27.3063  255 255 255
-10.5766 10.8375 -45.0038  255 255 255
12.0552 7.31138 -26.8944  255 255 255
13.039 8.23738 -27.4223  255 255 255
-13.7103 10.9078 -41.2108  255 255 255
15.0404 11.4947 -40.4584  255 255 255
-15.3313 10.7495 -41.0888  255 255 255
-18.039 10.6924 -40.491  255 255 255
-16.2115 11.3186 -41.4334  255 255 255
14.0936 7.05666 -24.9557  255 255 255
14.1042 5.8476 -22.5453  255 255 255
-15.6562 10.517 -41.1879  255 255 255
-13.4557 9.69282 -39.8083  255 255 255
0.705978 13.0853 -50.5022  255 255 255
13.8759 9.8889 -35.5886  255 255 255
13.0679 6.9811 -26.5108  255 255 255
-16.1962 10.229 -42.4619  255 255 255
-16.1844 10.3163 -41.7539  255 255 255
2.46481 12.3778 -50.5452  255 255 255
12.0923 7.95703 -28.7014  255 255 255
-7.27396 11.3428 -49.0208  255 255 255
-11.095 10.965 -41.3841  255 255 255
-6.41885 12.0819 -47.3809  255 255 255
-7.80331 12.4543 -47.5564  255 255 255
11.9364 11.5158 -48.7651  255 255 255
-12.0992 9.88716 -40.0111  255 255 255
12.5736 7.58131 -26.5682  255 255 255
13.5867 11.4024 -49.0595  255 255 255
-17.3864 10.0621 -41.8289  255 255 255
13.9813 11.0774 -42.6785  255 255 255
-7.1164 12.3743 -47.6663  255 255 255
12.5152 7.02475 -28.3703  255 255 255
-15.7595 10.6332 -41.8962  255 255 255
-7.86748 11.2658 -47.7009  255 255 255
12.0485 6.94782 -28.5748  255 255 255
13.2029 7.48689 -27.7578  255 255 255
13.1547 6.01343 -27.7787  255 255 255
14.8439 7.09727 -26.0254  255 255 255
-13.9081 9.75157 -41.0129  255 255 255
12.8067 7.51633 -28.697  255 255 255
13.1706 6.71394 -26.4233  255 255 255
13.392 6.5702 -27.0162  255 255 255
-16.0084 10.0024 -42.4811  255 255 255
13.5174 6.52495 -26.4551  255 255 255
-11.5368 11.6712 -51.2337  255 255 255
-9.95222 10.1469 -41.0948  255 255 255
14.3778 11.5281 -50.5138  255 255 255
-4.79747 11.5421 -47.2743  255 255 255
12.1869 7.26049 -30.196  255 255 255
12.7583 6.19994 -26.4403  255 255 255
13.2061 6.61843 -25.6931  255 255 255
14.2728 6.55112 -23.7907  255 255 255
2.92735 11.3209 -47.0991  255 255 255
2.15934 11.2188 -46.9194  255 255 255
-0.255541 10.9016 -47.5003  255 255 255
15.7126 9.69491 -42.5216  255 255 255
12.9164 5.88873 -26.7374  255 255 255
-13.5995 8.50624 -36.4648  255 255 255
1.40929 11.6301 -47.116  255 255 255
15.7544 7.45463 -31.8329  255 255 255
12.3055 7.22246 -27.9335  255 255 255
-14.5446 7.77961 -35.6511  255 255 255
3.0446 10.808 -47.4257  255 255 255
-19.5897 9.73758 -45.4382  255 255 255
-16.2216 9.8618 -42.357  255 255 255
-14.1389 9.08526 -36.981  255 255 255
16.1231 7.67819 -31.869  255 255 255
-7.53215 9.74247 -46.2587  255 255 255
12.7326 7.12717 -27.3387  255 255 255
12.8774 6.31306 -26.9025  255 255 255
11.8805 10.461 -46.8802  255 255 255
12.9883 6.83386 -26.7081  255 255 255
-11.7791 10.6458 -45.0646  255 255 255
-17.0017 8.82232 -42.0754  255 255 255
-15.38 7.92252 -36.2959  255 255 255
11.5032 9.97856 -45.2233  255 255 255
12.6849 6.46401 -26.2748  255 255 255
-0.498361 10.1808 -46.7059  255 255 255
-6.32859 10.2864 -46.6433  255 255 255
12.2543 5.33632 -27.9377  255 255 255
10.3755 9.98033 -45.9634  255 255 255
-17.0165 9.4854 -43.5485  255 255 255
12.3792 6.67598 -27.7969  255 255 255
14.0878 6.12983 -27.9256  255 255 255
6.63301 9.55993 -45.9316  255 255 255
11.97 6.20602 -28.0024  255 255 255
12.4621 5.21927 -27.081  255 255 255
-1.5492 10.5887 -46.9848  255 255 255
12.6502 6.2071 -25.6993  255 255 255
-25.5476 11.031 -46.6487  255 255 255
-12.949 10.1216 -46.3688  255 255 255
-6.43768 9.79397 -44.4412  255 255 255
10.4372 8.69518 -45.0449  255 255 255
12.1309 6.227 -29.0949  255 255 255
12.9349 6.53163 -28.3649  255 255 255
11.8728 5.80154 -27.864  255 255 255
-11.4966 10.2257 -45.9069  255 255 255
-1.12277 9.39842 -44.7456  255 255 255
15.5957 5.97891 -23.0559  255 255 255
12.4855 5.86295 -28.4468  255 255 255
13.2102 7.04535 -29.4833  255 255 255
-5.79174 9.20986 -44.2102  255 255 255
-7.96787 9.31341 -45.4663  255 255 255
15.4848 4.78673 -22.4114  255 255 255
14.445 4.704 -21.5726  255 255 255
-17.436 8.13793 -41.5766  255 255 255
13.5298 5.56229 -24.2344  255 255 255
13.4112 5.73451 -25.1364  255 255 255
15.8638 5.29432 -24.4715  255 255 255
12.5414 5.23028 -28.8631  255 255 255
14.0746 4.92792 -22.2817  255 255 255
12.4622 6.5629 -29.0868  255 255 255
13.1499 5.51653 -27.4805  255 255 255
12.0641 7.04148 -27.1751  255 255 255
12.2686 6.41233 -30.4744  255 255 255
12.4577 6.1067 -26.5688  255 255 255
-2.55404 8.39318 -43.8227  255 255 255
13.2438 5.63895 -27.9945  255 255 255
1.18892 8.88535 -44.7563  255 255 255
15.1009 6.47708 -30.2663  255 255 255
16.1007 4.1567 -23.6103  255 255 255
-1.88082 9.0785 -45.0604  255 255 255
13.5968 5.53272 -27.8355  255 255 255
15.1845 5.29291 -22.6401  255 255 255
14.7296 3.96457 -21.8955  255 255 255
-24.2142 10.2805 -46.1277  255 255 255
-24.4999 9.46332 -45.9422  255 255 255
-15.9955 9.10005 -44.1544  255 255 255
-7.26072 8.71945 -43.8044  255 255 255
-1.86223 9.66386 -44.0419  255 255 255
12.9517 5.96918 -33.1577  255 255 255
12.9557 5.63367 -26.614  255 255 255
13.5464 6.09105 -26.9994  255 255 255
13.2295 6.21314 -29.0699  255 255 255
14.008 7.38205 -36.3119  255 255 255
12.9831 5.91152 -28.5312  255 255 255
0.0893835 9.31041 -45.2025  255 255 255
12.4107 4.9376 -27.7971  255 255 255
13.5722 6.25741 -27.7826  255 255 255
12.1057 5.29771 -27.4731  255 255 255
0.148367 8.60505 -43.4219  255 255 255
-16.0335 7.80988 -44.4304  255 255 255
-4.06418 7.98991 -43.7948  255 255 255
-0.984527 8.94083 -43.6584  255 255 255
-0.822647 8.25957 -43.2654  255 255 255
13.1001 5.46491 -26.9908  255 255 255
17.4105 5.74143 -28.9827  255 255 255
14.5235 5.14297 -25.8136  255 255 255
12.436 5.77887 -28.2553  255 255 255
13.9926 5.23687 -26.7687  255 255 255
13.1541 5.95507 -28.3435  255 255 255
-1.75823 6.31263 -42.1985  255 255 255
14.0411 4.98319 -25.625  255 255 255
13.029 4.63544 -29.5359  255 255 255
14.507 6.17309 -32.0816  255 255 255
12.9905 5.57729 -25.8852  255 255 255
1.70874 7.7539 -43.9423  255 255 255
-8.04968 6.96229 -42.278  255 255 255
0.442 7.95169 -42.6896  255 255 255
13.3747 4.97178 -26.9461  255 255 255
-6.53298 7.09972 -41.6651  255 255 255
12.6943 4.80121 -28.5706  255 255 255
12.5007 5.43946 -27.4738  255 255 255
15.4195 5.09671 -25.9925  255 255 255
13.3467 5.20176 -28.2173  255 255 255
12.2041 5.69674 -28.1136  255 255 255
-4.86077 7.32674 -41.7798  255 255 255
13.3985 4.85494 -27.9636  255 255 255
-0.594538 7.59323 -41.6985  255 255 255
0.0467326 7.03039 -42.7869  255 255 255
-14.1843 7.33943 -42.9237  255 255 255
-0.925767 6.6102 -42.3714  255 255 255
12.379 4.72623 -30.4758  255 255 255
-10.4333 6.73083 -40.6768  255 255 255
-1.73807 6.82835 -42.3033  255 255 255
-2.05546 7.08705 -42.2506  255 255 255
12.2277 5.04765 -32.5784  255 255 255
12.8222 4.1836 -29.6736  255 255 255
12.9469 5.23695 -28.9779  255 255 255
14.0411 5.00887 -29.9331  255 255 255
-1.50115 7.57042 -41.8678  255 255 255
13.6814 4.85139 -28.6039  255 255 255
19.2234 4.85796 -30.1242  255 255 255
12.5795 4.06954 -28.5855  255 255 255
14.1831 4.05569 -26.1795  255 255 255
-4.51068 6.46803 -41.6639  255 255 255
-5.32316 7.25975 -41.8618  255 255 255
13.4066 4.38796 -28.9998  255 255 255
3.04209 4.32295 -23.9616  255 255 255
15.1616 4.37011 -23.5584  255 255 255
-7.25604 5.71513 -40.0391  255 255 255
12.8291 4.82484 -25.9999  255 255 255
0.650782 4.43428 -23.1143  255 255 255
17.3 4.80412 -28.949  255 255 255
13.0649 4.03388 -27.91  255 255 255
13.605 3.92023 -26.448  255 255 255
-4.47669 5.89284 -41.594  255 255 255
14.1682 4.81595 -27.4066  255 255 255
-26.1031 6.16376 -40.536  255 255 255
12.739 4.34193 -28.787  255 255 255
13.5941 4.33213 -26.1494  255 255 255
13.4612 3.57421 -27.0305  255 255 255
12.876 3.90921 -28.7106  255 255 255
13.257 3.69685 -29.2229  255 255 255
14.6625 3.84715 -27.064  255 255 255
-24.6974 6.52033 -40.7951  255 255 255
18.8452 3.91692 -30.2627  255 255 255
14.5102 3.13238 -25.8883  255 255 255
12.7734 4.66335 -31.2968  255 255 255
-13.6595 5.7217 -36.8856  255 255 255
12.632 4.55082 -29.6569  255 255 255
14.3011 3.80409 -30.6089  255 255 255
18.6791 4.40321 -29.169  255 255 255
12.5769 3.52885 -27.7641  255 255 255
16.9377 3.92703 -30.8654  255 255 255
13.0552 3.13785 -27.9933  255 255 255
13.2185 4.24611 -30.3211  255 255 255
14.8604 3.74488 -25.8493  255 255 255
14.2146 3.52213 -27.7733  255 255 255
13.7296 3.77162 -26.7555  255 255 255
13.1997 3.15946 -28.9594  255 255 255
14.6756 4.38188 -27.7369  255 255 255
14.3467 4.19231 -25.7044  255 255 255
18.7076 3.70607 -28.8796  255 255 255
15.5533 3.56345 -24.1301  255 255 255
13.4493 3.1919 -29.5596  255 255 255
14.1027 3.3486 -24.3603  255 255 255
13.6058 3.40698 -27.1528  255 255 255
13.4599 4.06371 -28.2935  255 255 255
14.1597 2.92226 -27.2728  255 255 255
14.8714 4.71935 -32.3095  255 255 255
13.5588 3.88405 -26.1837  255 255 255
14.5947 4.52819 -25.679  255 255 255
16.4129 3.33027 -23.772  255 255 255
-3.39433 4.82467 -39.192  255 255 255
-3.78176 5.31189 -39.9276  255 255 255
12.9895 4.02531 -28.2566  255 255 255
2.73286 3.12974 -23.0192  255 255 255
15.0923 4.06153 -25.2555  255 255 255
2.36369 3.63644 -22.4401  255 255 255
15.0176 3.38879 -25.5954  255 255 255
13.1576 5.36759 -30.0077  255 255 255
13.2344 4.80104 -27.5798  255 255 255
15.0735 4.19575 -23.1097  255 255 255
1.88887 3.72768 -22.6325  255 255 255
14.7023 3.68973 -23.9113  255 255 255
14.9118 3.47342 -23.0681  255 255 255
12.5291 4.66603 -33.5797  255 255 255
-12.6806 5.02886 -36.8466  255 255 255
14.1768 2.76051 -22.1169  255 255 255
-12.7419 4.97798 -39.1146  255 255 255
13.9879 4.12788 -27.2889  255 255 255
15.5506 2.97069 -21.9699  255 255 255
-2.13667 3.13073 -23.0124  255 255 255
-0.410632 3.18472 -23.0994  255 255 255
13.5216 4.22562 -27.71  255 255 255
13.2169 4.81791 -34.531  255 255 255
14.1897 3.25646 -23.5365  255 255 255
14.5698 4.47936 -26.7155  255 255 255
13.8293 3.56172 -25.9343  255 255 255
13.898 3.97311 -26.7736  255 255 255
0.631559 2.80193 -22.8677  255 255 255
15.295 2.7624 -24.2971  255 255 255
12.3106 3.40451 -31.01  255 255 255
14.2613 3.39352 -26.1804  255 255 255
-12.0729 4.21229 -35.6056  255 255 255
13.8758 3.59494 -24.525  255 255 255
15.6309 3.27877 -30.5328  255 255 255
14.382 3.45936 -26.6116  255 255 255
16.0879 3.87135 -29.7308  255 255 255
15.3855 3.45805 -24.8255  255 255 255
0.788314 2.8226 -22.6269  255 255 255
15.6272 4.1689 -31.2732  255 255 255
15.8899 3.32669 -30.9863  255 255 255
13.6579 3.32451 -25.1725  255 255 255
16.0385 3.33414 -23.4401  255 255 255
16.0989 3.04755 -24.2586  255 255 255
-11.283 5.32558 -35.7179  255 255 255
-1.87508 2.43476 -23.0958  255 255 255
-1.68532 3.0556 -22.9795  255 255 255
14.228 3.91369 -26.8235  255 255 255
18.8216 3.16841 -29.4995  255 255 255
14.5307 2.34812 -24.7573  255 255 255
14.1095 3.19829 -26.8841  255 255 255
-13.5198 4.14964 -34.6068  255 255 255
15.9286 3.88134 -25.5176  255 255 255
-6.28313 3.81577 -38.1819  255 255 255
-0.217641 2.49961 -22.4156  255 255 255
-1.50311 2.51352 -22.9818  255 255 255
17.4476 3.28594 -27.9117  255 255 255
14.6116 2.65289 -23.2907  255 255 255
13.3703 2.92128 -28.2299  255 255 255
14.0738 2.99236 -24.8226  255 255 255
13.8073 3.58034 -27.5351  255 255 255
13.5519 3.58108 -30.0842  255 255 255
14.3606 3.43876 -28.2149  255 255 255
18.8599 3.4634 -29.8697  255 255 255
15.0271 2.66149 -23.4915  255 255 255
14.2916 2.85937 -23.5818  255 255 255
14.4651 3.66045 -28.2394  255 255 255
13.4884 3.44452 -28.4055  255 255 255
14.1108 2.11262 -27.1793  255 255 255
13.9797 2.91236 -24.8433  255 255 255
13.9585 2.8622 -28.3224  255 255 255
3.64309 3.28064 -22.479  255 255 255
14.2851 3.81334 -27.4942  255 255 255
15.7135 3.39551 -24.2552  255 255 255
14.8163 2.72855 -24.5016  255 255 255
-2.21347 2.66338 -26.3545  255 255 255
14.9629 3.39219 -27.6487  255 255 255
16.5413 1.61079 -23.338  255 255 255
14.2 3.72278 -27.2168  255 255 255
13.2507 3.53907 -28.3704  255 255 255
14.1247 3.56801 -24.4191  255 255 255
14.9699 2.80324 -27.0659  255 255 255
14.9888 3.24675 -24.2366  255 255 255
15.0301 2.40868 -25.2476  255 255 255
16.171 2.65446 -23.2265  255 255 255
-8.53515 3.79993 -37.542  255 255 255
13.6943 3.11775 -25.3215  255 255 255
17.5339 3.79914 -29.4536  255 255 255
-2.65225 2.82797 -27.3107  255 255 255
-2.90169 2.6637 -26.489  255 255 255
13.5972 2.32401 -28.2657  255 255 255
16.2908 2.21257 -26.6488  255 255 255
15.5378 3.11143 -26.3495  255 255 255
13.2421 2.44541 -27.7339  255 255 255
12.5701 3.2237 -28.7569  255 255 255
14.8338 2.50488 -26.5078  255 255 255
14.6641 3.31739 -23.537  255 255 255
13.8903 3.25263 -25.9338  255 255 255
13.8142 2.42948 -25.7668  255 255 255
-8.42518 3.75327 -37.8396  255 255 255
-0.486329 1.44787 -21.5761  255 255 255
0.299107 2.65602 -21.2022  255 255 255
14.3343 2.80614 -28.8622  255 255 255
-2.41899 3.04618 -27.2007  255 255 255
14.8131 2.05757 -23.888  255 255 255
13.5962 3.03228 -29.1826  255 255 255
19.0982 2.12796 -29.2306  255 255 255
-1.7189 2.69619 -23.2425  255 255 255
14.7922 2.77943 -26.2301  255 255 255
15.9364 3.27158 -29.6747  255 255 255
13.8932 2.54375 -25.3341  255 255 255
19.2368 2.94766 -28.7273  255 255 255
12.0547 3.21896 -37.0325  255 255 255
14.2942 1.20971 -25.6484  255 255 255
14.5077 1.6566 -27.2885  255 255 255
15.2654 1.70994 -26.4266  255 255 255
14.6801 2.63017 -23.9206  255 255 255
15.6159 2.95831 -24.2118  255 255 255
13.3779 3.48476 -33.1636  255 255 255
14.6045 2.17949 -30.0153  255 255 255
13.44 2.38936 -27.9973  255 255 255
0.884623 2.04126 -22.4783  255 255 255
-0.456049 2.18062 -21.8291  255 255 255
-0.912534 3.54552 -22.8762  255 255 255
12.7092 2.12018 -29.7039  255 255 255
15.6338 2.81186 -26.1747  255 255 255
15.4302 2.31393 -26.4335  255 255 255
16.3969 2.22187 -29.9386  255 255 255
0.27599 2.3977 -20.7078  255 255 255
13.4215 1.76527 -27.6349  255 255 255
13.6911 3.63173 -34.6246  255 255 255
-12.297 2.51909 -33.2791  255 255 255
0.0208117 1.29655 -21.2045  255 255 255
14.5777 2.51651 -32.5693  255 255 255
15.2841 2.91776 -26.6138  255 255 255
3.08548 2.86834 -21.4684  255 255 255
14.3062 2.18241 -27.1832  255 255 255
14.6335 2.2556 -24.1564  255 255 255
-2.93683 1.81677 -26.1703  255 255 255
0.452224 1.82798 -21.1727  255 255 255
0.170508 2.78708 -20.9884  255 255 255
14.7296 2.54942 -26.1057  255 255 255
16.4564 2.65713 -30.1366  255 255 255
15.1739 2.34279 -26.4839  255 255 255
-0.48536 2.57756 -21.2911  255 255 255
14.4607 1.23905 -26.3519  255 255 255
14.3949 2.25926 -26.1931  255 255 255
15.1549 1.54427 -26.4067  255 255 255
1.37788 1.41112 -21.6696  255 255 255
-0.959016 3.23804 -22.0971  255 255 255
1.28175 2.05551 -20.935  255 255 255
14.9761 1.96461 -25.6816  255 255 255
-2.18088 2.45119 -25.8126  255 255 255
13.5227 2.74603 -29.0918  255 255 255
17.3639 1.26471 -29.3444  255 255 255
-0.750372 1.99748 -20.8882  255 255 255
14.2531 2.0823 -26.8568  255 255 255
14.534 2.00152 -26.2709  255 255 255
12.9485 2.09924 -33.0006  255 255 255
15.1227 2.90066 -25.595  255 255 255
2.24505 2.13484 -20.737  255 255 255
-10.6838 1.85862 -35.1142  255 255 255
-10.7208 3.54387 -33.1551  255 255 255
14.5276 1.31306 -23.6867  255 255 255
-6.07948 3.40942 -35.7942  255 255 255
13.7239 2.9141 -30.7131  255 255 255
14.8926 2.18793 -26.703  255 255 255
14.4762 1.70821 -25.1821  255 255 255
14.1873 2.52055 -24.8576  255 255 255
16.2444 1.23205 -24.6491  255 255 255
12.2288 2.97557 -35.1154  255 255 255
2.42549 1.96529 -20.0823  255 255 255
15.2421 2.72976 -40.1761  255 255 255
14.521 1.53151 -28.5067  255 255 255
-8.22118 3.63893 -35.6123  255 255 255
14.2273 1.80915 -27.9639  255 255 255
-7.04614 1.90524 -35.6799  255 255 255
-7.1611 1.73182 -35.1716  255 255 255
15.9037 1.75868 -24.4419  255 255 255
13.7557 1.32133 -26.4533  255 255 255
16.5956 1.65634 -23.3177  255 255 255
1.91747 1.59792 -21.1945  255 255 255
13.2248 2.48769 -28.059  255 255 255
3.21622 1.64982 -21.157  255 255 255
15.4197 1.35512 -26.9578  255 255 255
15.2057 2.30573 -23.7556  255 255 255
-13.0244 1.96246 -35.4977  255 255 255
1.89083 1.2602 -20.7222  255 255 255
14.7341 1.96173 -27.367  255 255 255
13.5638 2.61257 -34.4469  255 255 255
13.5849 2.63539 -34.0152  255 255 255
17.5802 1.95591 -29.268  255 255 255
14.8655 1.43534 -25.8153  255 255 255
14.3428 2.2415 -27.95  255 255 255
15.3556 3.03421 -29.9551  255 255 255
15.7185 3.44322 -41.0669  255 255 255
-3.98815 2.41324 -25.6203  255 255 255
17.2249 1.44517 -29.0979  255 255 255
13.9291 1.8058 -28.5633  255 255 255
14.7139 2.09047 -28.6992  255 255 255
13.3136 1.14403 -28.7439  255 255 255
14.3172 1.23889 -27.0958  255 255 255
1.00266 1.7566 -20.2983  255 255 255
14.469 1.69126 -29.1483  255 255 255
13.9559 1.00994 -26.2505  255 255 255
